# Geomagic Studio
# New Model
-13.01912459 -2.33965963 1.77251072
-13.02635576 -2.37307401 1.74355818
-13.02572334 -2.36281245 1.75210361
-13.02340721 -1.70653393 2.13725888
-13.03005172 -2.34509136 1.76494853
-13.02787755 -1.49991950 2.19807835
-13.02422736 -2.30447089 1.79804026
-13.02039177 -2.28275171 1.81524802
-13.02516953 -2.43514923 1.69078548
-13.02499823 -2.21713688 1.86038504
-13.01970304 -2.20744394 1.86847567
-13.02552153 -1.55744561 2.18602587
-13.02583598 -2.52004038 1.61025512
-13.02315377 -2.41306295 1.71085174
-13.02608824 -1.77119881 2.11045014
-13.02757249 -1.63690400 2.16089424
-13.02644258 -1.61883121 2.16706986
-13.02790337 -2.51134022 1.61817664
-13.02738359 -2.54748286 1.58182793
-13.02880330 -1.54754734 2.18778863
-13.02656226 -1.59918455 2.17324739
-13.02637101 -2.59703803 1.53024263
-13.03032979 -2.60172690 1.52383850
-13.03050814 -1.65561507 2.15379712
-13.02525284 -1.66917000 2.15045580
-13.02732609 -1.69966927 2.13884199
-13.02779894 -1.71456090 2.13305957
-13.02964692 -1.72287475 2.12936537
-13.03407151 -1.77805085 2.10543478
-13.03232209 -2.04948151 1.96513155
-13.03120978 -1.82017141 2.08734425
-13.03094931 -1.99339507 1.99807866
-13.03126141 -2.54064417 1.58751369
-13.02769217 -2.03173842 1.97684759
-13.03399055 -2.20799804 1.86412280
-13.02790337 -2.35413590 1.75843382
-13.03334522 -1.50581602 2.19580622
-13.03121096 -2.31577333 1.78741511
-13.03685228 -2.26616507 1.82256719
-13.03585848 -1.84685227 2.07353310
-13.03266001 -1.98524357 2.00220303
-13.03210972 -1.96942517 2.01115297
-13.03216369 -1.79688248 2.09767137
-13.03195367 -1.95371691 2.01978860
-13.03121330 -2.02055493 1.98245122
-13.03266001 -2.40986081 1.71055357
-13.03043422 -1.51550383 2.19475375
-13.03417241 -2.18284661 1.88099396
-13.03265179 -2.49955451 1.62814150
-13.03210855 -1.62823507 2.16257766
-13.03298854 -2.39987234 1.71901541
-13.03375471 -2.29694213 1.80086781
-13.03364794 -1.94516840 2.02396445
-13.03226694 -1.78682611 2.10209258
-13.03275387 -2.30770367 1.79308195
-13.03466638 -2.32123498 1.78219736
-13.03415364 -2.33643828 1.77052869
-13.04069255 -2.34901802 1.75855203
-13.03181991 -2.36680365 1.74696154
-13.03101266 -2.16492782 1.89365555
-13.03431204 -2.37305729 1.74109890
-13.03383802 -1.93727063 2.02814293
-13.03528355 -2.28651865 1.80816439
-13.03113234 -2.41934344 1.70282888
-13.03737323 -2.42560779 1.69523354
-13.03319387 -1.75411806 2.11580796
-13.03549357 -2.43552425 1.68705946
-13.03397060 -2.44413583 1.67979323
-13.03301552 -2.45200969 1.67293767
-13.03441999 -1.64499477 2.15637989
-13.03175538 -2.22590319 1.85244871
-13.03236550 -2.46000410 1.66579318
-13.03238662 -2.46906814 1.65734631
-13.03484473 -2.06865722 1.95295513
-13.03431556 -2.49071707 1.63609397
-13.03530115 -2.50620225 1.62069312
-13.03172135 -1.53136330 2.19089309
-13.03193724 -1.61004113 2.16843898
-13.03206865 -2.51714756 1.61096703
-13.03328539 -2.53324228 1.59434373
-13.03410671 -2.15390433 1.89998517
-13.03475907 -2.55064027 1.57599286
-13.03210033 -2.55752032 1.56977515
-13.03278203 -2.57277113 1.55364611
-13.03305893 -2.58075352 1.54511270
-13.03237372 -2.52476387 1.60325876
-13.03171196 -2.58963790 1.53617185
-13.03393658 -2.59630558 1.52835534
-13.03211911 -1.80816043 2.09262639
-13.02925503 -1.76262345 2.11328400
-13.03638647 -1.82870687 2.08199010
-13.03616471 -1.72701716 2.12604312
-13.03317861 -1.73825037 2.12232780
-13.03725003 -1.85867420 2.06743404
-13.03335226 -1.86990844 2.06297762
-13.03667745 -1.71636459 2.13006599
-13.03153949 -1.88374951 2.05654020
-13.03580216 -1.69548301 2.13818361
-13.03452793 -1.70566039 2.13471762
-13.03364559 -1.89591346 2.04981884
-13.03538093 -1.68575077 2.14185536
-13.03230449 -1.90513326 2.04544573
-13.03754923 -1.91623389 2.03826677
-13.03661292 -1.66408072 2.14926268
-13.03461241 -1.92969216 2.03196869
-13.03476259 -1.67504965 2.14588601
-13.03152189 -2.48032204 1.64702931
-13.03737206 -1.61966602 2.16394223
-13.03709750 -1.59964097 2.17032861
-13.03403631 -1.58864975 2.17456459
-13.03397060 -1.57576744 2.17850342
-13.03194193 -2.19882576 1.87091720
-13.03491747 -1.55419771 2.18444423
-13.04045320 -2.17016346 1.88759139
-13.03625975 -1.52275538 2.19167511
-13.03817109 -1.49840592 2.19580666
-13.03281840 -2.27705275 1.81581898
-13.03519438 -2.13842942 1.90962385
-13.03192785 -2.56494186 1.56212965
-13.03475790 -1.56331441 2.18193494
-13.03534808 -2.11999143 1.92125042
-13.03504184 -2.38039494 1.73478615
-13.03511576 -2.08535606 1.94275180
-13.03512867 -2.03917727 1.97048336
-13.03560152 -1.53887812 2.18808226
-13.03349893 -2.10261823 1.93257955
-13.03574466 -2.25876055 1.82819883
-13.03500430 -2.00916888 1.98800117
-13.03510286 -2.11041494 1.92730871
-13.03506179 -2.12953947 1.91531093
-13.03481070 -1.97714444 2.00615198
-13.03655191 -2.14544998 1.90475354
-13.03474734 -2.09453948 1.93723455
-13.03473913 -2.24985021 1.83483204
-13.03869908 -2.56041256 1.56446925
-13.03511928 -2.07693426 1.94787994
-13.03691916 -2.60077212 1.52256985
-13.03257787 -2.24139717 1.84140337
-13.03420409 -2.05984852 1.95842984
-13.03832010 -1.63591445 2.15838011
-13.03761963 -1.76975650 2.10807549
-13.03758443 -2.02902585 1.97577518
-13.04102930 -2.59748565 1.52456479
-13.04130151 -2.55460550 1.56955764
-13.03973512 -2.51269687 1.61268712
-13.03907220 -1.74581931 2.11767647
-13.04256400 -1.79453218 2.09595847
-13.04239035 -1.50602780 2.19350123
-13.04434979 -1.49747562 2.19435072
-13.03738262 -1.92312802 2.03469475
-13.03599106 -2.38919323 1.72710970
-13.04218502 -1.59071318 2.17175097
-13.04233755 -1.67000760 2.14565721
-13.04175323 -1.76131769 2.11055119
-13.04281391 -2.30035429 1.79560752
-13.04277520 -1.86773296 2.06152329
-13.04184710 -1.87821774 2.05657819
-13.04033938 -1.81264677 2.08837647
-13.04247835 -1.88924182 2.05084374
-13.04030888 -1.90790317 2.04186256
-13.04385700 -1.92784330 2.03046757
-13.04299578 -1.94113731 2.02361450
-13.04206768 -1.94993985 2.01912758
-13.03823797 -1.95978855 2.01479818
-13.04398606 -1.81987002 2.08409562
-13.04327034 -1.96870020 2.00856272
-13.04759871 -2.25954696 1.82418094
-13.04178726 -1.98942660 1.99738567
-13.04508898 -2.00754208 1.98617915
-13.03891380 -2.23397461 1.84479397
-13.04634443 -2.02593665 1.97517297
-13.03826261 -2.21741540 1.85644826
-13.04249712 -2.10184091 1.93057435
-13.04308026 -2.19875492 1.86782360
-13.04370681 -2.08243068 1.94216176
-13.04346511 -2.09137064 1.93676801
-13.04761749 -1.85178578 2.06799268
-13.04153148 -2.49516395 1.62925777
-13.04349679 -2.57343758 1.54912604
-13.04139068 -2.56623339 1.55743241
-13.04558999 -2.54855323 1.57428216
-13.04327503 -1.78573242 2.09966190
-13.04247365 -2.39494220 1.72013828
-13.03915550 -2.54402098 1.58125007
-13.04091079 -1.54740624 2.18469224
-13.04272240 -2.51991073 1.60442665
-13.04256517 -1.89914478 2.04577485
-13.04576247 -1.91954515 2.03432809
-13.04158076 -1.93427588 2.02766935
-13.04259802 -1.98027354 2.00230760
-13.04325508 -2.50092172 1.62303565
-13.04053181 -1.99883238 1.99240786
-13.04063389 -2.01785526 1.98145331
-13.04409401 -2.03620158 1.96977335
-13.04283034 -2.04575050 1.96447405
-13.04276933 -2.05522814 1.95885150
-13.04405059 -2.48144608 1.64157014
-13.04389337 -2.07375647 1.94737541
-13.04239739 -2.47217861 1.65097489
-13.04406115 -2.11208413 1.92377628
-13.05237764 -2.46586205 1.65338855
-13.04536237 -2.13015795 1.91203986
-13.04201254 -2.46301411 1.65968371
-13.04237979 -2.45471976 1.66723842
-13.04380772 -2.14834412 1.90086369
-13.04213456 -2.15830501 1.89488050
-13.04292773 -1.62764518 2.15990674
-13.04505378 -2.43714739 1.68235958
-13.04769258 -2.17816668 1.88026548
-13.04208528 -2.18902883 1.87462988
-13.04535885 -2.20822376 1.86073014
-13.04180017 -2.41451361 1.70351351
-13.04437443 -2.22631825 1.84855153
-13.04246544 -2.40398190 1.71241064
-13.04207942 -1.80396347 2.09186607
-13.04390041 -1.83552929 2.07678422
-13.04351791 -2.06468407 1.95295807
-13.04421721 -2.26946504 1.81800957
-13.04482733 -2.37184481 1.73875343
-13.04305914 -2.27946143 1.81104856
-13.03713505 -2.35814367 1.75233490
-13.04747434 -2.33314330 1.76899384
-13.04179665 -2.31101522 1.78784689
-13.04585281 -2.31900817 1.78046495
-13.03977619 -2.32792584 1.77545106
-13.04431107 -2.53608025 1.58753114
-13.04329380 -2.28994152 1.80326344
-13.04538231 -2.25095284 1.83095364
-13.04373497 -1.60846317 2.16581147
-13.04353316 -2.24228523 1.83764640
-13.04195270 -1.53002293 2.18850846
-13.04250416 -2.36438998 1.74559477
-13.04262032 -2.59127820 1.53062352
-13.04267546 -1.65351747 2.15131555
-13.04513005 -1.66297810 2.14736923
-13.04526146 -1.77751831 2.10271708
-13.04370916 -2.52771976 1.59623424
-13.04796010 -2.48904039 1.63289740
-13.04469475 -2.13926174 1.90643726
-13.04571905 -1.64228484 2.15430018
-13.04785802 -2.42742541 1.69012388
-13.04871102 -1.49682780 2.19337437
-13.04516994 -2.12100943 1.91787170
-13.04508429 -2.58196439 1.53957448
-13.04375374 -1.51369735 2.19171075
-13.04599244 -1.52177463 2.18937276
-13.04412686 -1.55645210 2.18140519
-13.04467128 -1.67852854 2.14201010
-13.04381593 -1.58077957 2.17434430
-13.04360825 -2.34082737 1.76415830
-13.04534125 -1.59739612 2.16882691
-13.04835081 -1.61861165 2.16134450
-13.04719978 -2.55959710 1.56223158
-13.04566156 -1.70090287 2.13355266
-13.04500685 -1.71048919 2.13011293
-13.04558764 -1.73071135 2.12206997
-13.04637611 -1.75268191 2.11291690
-13.04882366 -1.76938661 2.10524016
-13.04563106 -1.72046988 2.12609856
-13.04676096 -1.56777654 2.17744435
-13.05343715 -1.84191010 2.07117766
-13.04604641 -1.86010770 2.06438487
-13.04530253 -1.73874199 2.11894571
-13.04757055 -1.53865123 2.18498499
-13.04334426 -2.44635737 1.67457974
-13.04671168 -2.37936946 1.73189230
-13.05250436 -2.06008348 1.95321766
-13.05642208 -1.67905302 2.13862683
-13.05010727 -2.01569181 1.98008625
-13.05047452 -2.00056962 1.98868243
-13.05143547 -1.74395359 2.11514914
-13.04883070 -1.95607030 2.01394796
-13.04929533 -1.63354566 2.15623542
-13.05285988 -2.19943501 1.86452099
-13.05095793 -2.54232671 1.57869252
-13.05158800 -2.32517866 1.77392003
-13.05336206 -1.59836484 2.16635120
-13.05111867 -1.87486645 2.05572020
-13.05306286 -2.34444002 1.75829346
-13.05198224 -1.89322861 2.04622848
-13.05166192 -1.94507614 2.01913418
-13.04951240 -2.38713786 1.72445947
-13.05513025 -1.96315480 2.00834448
-13.05257946 -1.97425675 2.00291802
-13.05311449 -2.24499897 1.83288903
-13.05270383 -2.03204495 1.96982219
-13.05173115 -2.04140570 1.96456455
-13.05196229 -2.39632950 1.71579010
-13.05169477 -2.05062168 1.95910553
-13.05224623 -2.08014520 1.94114699
-13.05121019 -2.19190317 1.87007901
-13.05127590 -2.09624857 1.93156449
-13.04979165 -2.16117847 1.89081040
-13.05026567 -2.08800541 1.93691072
-13.05196346 -2.10518325 1.92583165
-13.05222277 -2.15256924 1.89572646
-13.05246212 -2.40700862 1.70643258
-13.05395341 -2.11286439 1.92047632
-13.05412237 -2.14282790 1.90145035
-13.05088988 -2.41749795 1.69785019
-13.05283524 -2.44953604 1.66838138
-13.04994887 -2.55349026 1.56758661
-13.05216058 -2.45779269 1.66099592
-13.05439810 -1.70809136 2.12846559
-13.05408952 -2.52090922 1.59927695
-13.05189189 -2.51363758 1.60734895
-13.05160912 -2.49560893 1.62520248
-13.04718922 -2.50712682 1.61550455
-13.05295022 -2.50164507 1.61882387
-13.05215589 -1.98440465 1.99736191
-13.05445794 -2.52826359 1.59172561
-13.05352515 -2.47417619 1.64511958
-13.05733140 -2.53506797 1.58374674
-13.05413997 -2.44025992 1.67640879
-13.05346766 -2.56560772 1.55371665
-13.05543180 -2.58021467 1.53761108
-13.05316377 -2.58740067 1.53087549
-13.05318489 -1.79249383 2.09400445
-13.05175461 -1.80180925 2.09022489
-13.05544705 -1.81811605 2.08182818
-13.05077606 -1.82671370 2.07907938
-13.05467618 -1.73464579 2.11801072
-13.05651360 -1.85807610 2.06250551
-13.05292441 -1.86632703 2.05945356
-13.05251610 -1.71574038 2.12605456
-13.05903623 -1.87973558 2.05111507
-13.05102246 -1.88401966 2.05116258
-13.05117030 -1.90207823 2.04191580
-13.04818068 -1.68975897 2.13699841
-13.04828393 -1.91075566 2.03821735
-13.05583894 -1.91605320 2.03337418
-13.05093446 -1.66970650 2.14345049
-13.05350872 -1.92648401 2.02855389
-13.05376803 -1.65925501 2.14635607
-13.05344537 -2.36280438 1.74336839
-13.05514785 -1.64810055 2.14978745
-13.05058012 -1.58821357 2.17023430
-13.05708266 -1.63791467 2.15267132
-13.05049447 -2.35413854 1.75136031
-13.04979869 -1.93529388 2.02488228
-13.05542124 -1.60851215 2.16262078
-13.05391821 -1.62534342 2.15766819
-13.05308633 -2.07018078 1.94696299
-13.05375982 -2.16847330 1.88493427
-13.05531798 -2.31766120 1.77858573
-13.04926483 -1.81102495 2.08672488
-13.05077489 -2.30314533 1.79107646
-13.05494839 -1.55718484 2.17824309
-13.05191066 -1.54801784 2.18155757
-13.05247855 -2.29480992 1.79682528
-13.05259823 -2.28479314 1.80423494
-13.05243748 -1.52852958 2.18609817
-13.05589291 -2.25186597 1.82717789
-13.05657109 -2.26469872 1.81775012
-13.05397101 -1.51757283 2.18822760
-13.05117265 -2.23566888 1.84005346
-13.05362019 -1.50673165 2.19047422
-13.05542945 -2.22583734 1.84565665
-13.05528982 -2.20831689 1.85778717
-13.04957458 -2.21742684 1.85320095
-13.05142960 -1.99337160 1.99250056
-13.05342307 -1.76070405 2.10767524
-13.05325881 -2.31042372 1.78479216
-13.05591051 -2.37050782 1.73621877
-13.05420333 -1.78346894 2.09769190
-13.05592459 -2.48187200 1.63690356
-13.05374808 -2.57395267 1.54484034
-13.05650773 -1.49564187 2.19149075
-13.05319428 -2.27448391 1.81163023
-13.05656522 -2.43025751 1.68456381
-13.05563478 -2.02282017 1.97439315
-13.05564534 -1.57714829 2.17220357
-13.05731028 -2.55656289 1.56169420
-13.05800723 -2.12143945 1.91391042
-13.05875346 -1.63029469 2.15473079
-13.05455650 -1.77593975 2.10085576
-13.05751679 -1.69876288 2.13114222
-13.05619211 -2.33677590 1.76337599
-13.06116464 -2.10491148 1.92334743
-13.05464332 -1.72453382 2.12204870
-13.05845661 -1.75124020 2.11024188
-13.05963697 -1.76888751 2.10249635
-13.05857864 -1.80895169 2.08515073
-13.06052870 -2.17635199 1.87771087
-13.05749215 -2.08872158 1.93442167
-13.05891773 -2.24074481 1.83417102
-13.05855869 -2.37849504 1.72867242
-13.06072933 -2.03566699 1.96541022
-13.05494135 -2.00705720 1.98372016
-13.06417068 -1.55591692 2.17603652
-13.06073989 -1.71731791 2.12319386
-13.05888253 -1.53802981 2.18215347
-13.05328462 -2.59364126 1.52421206
-13.06376706 -2.39890303 1.70959482
-13.05969447 -2.32953226 1.76796704
-13.05916295 -2.50595937 1.61229816
-13.06205284 -2.45256819 1.66230696
-13.05946332 -1.61645435 2.15898774
-13.06271694 -2.56816761 1.54754338
-13.06185689 -1.56580126 2.17382921
-13.06207044 -1.97940748 1.99739389
-13.06258083 -1.89673684 2.04150983
-13.05870653 -1.90644606 2.03758331
-13.06520672 -1.92481555 2.02616413
-13.05916647 -1.95157898 2.01352425
-13.06249283 -1.96927132 2.00290761
-13.05929554 -1.99921722 1.98698361
-13.06488993 -2.00702757 1.98091725
-13.06066011 -2.02800477 1.96993952
-13.06086896 -2.04475538 1.95998302
-13.05610176 -2.54892898 1.57003988
-13.06135354 -2.05394643 1.95438262
-13.06376823 -2.06504208 1.94700889
-13.05936946 -2.09793522 1.92818577
-13.05915122 -2.15917048 1.88941576
-13.05596331 -2.13275964 1.90733455
-13.06093819 -2.38776310 1.72007521
-13.06528651 -2.16699755 1.88250520
-13.06054864 -2.19216746 1.86715202
-13.06247406 -2.20052458 1.86093401
-13.06022598 -2.01449590 1.97793555
-13.05961703 -2.21632010 1.85096783
-13.06685641 -2.22321981 1.84404436
-13.06153541 -2.23342315 1.83853724
-13.05554443 -2.18481632 1.87356890
-13.06196367 -2.24638305 1.82926523
-13.06290702 -1.74047264 2.11341996
-13.06186393 -2.41040934 1.70029641
-13.06159642 -2.29163477 1.79638411
-13.06410146 -2.27116708 1.81070214
-13.06476086 -2.20820366 1.85503925
-13.05957244 -2.30160065 1.78952298
-13.06435137 -2.31125927 1.78065298
-13.06253273 -2.32167469 1.77318744
-13.06395127 -2.34034763 1.75807596
-13.06178063 -2.34798272 1.75266299
-13.06224996 -2.58303651 1.53205101
-13.06167386 -2.35565359 1.74650673
-13.06485942 -2.43423565 1.67806787
-13.06239076 -2.49776901 1.61916736
-13.06102384 -1.88714040 2.04683347
-13.06216078 -2.46009665 1.65527906
-13.06315928 -1.86456045 2.05751420
-13.06245529 -2.54230735 1.57445552
-13.06087131 -1.93819008 2.02026629
-13.06166447 -1.98988845 1.99161177
-13.06156474 -2.28136279 1.80400380
-13.06187215 -2.57547387 1.54017595
-13.06432321 -1.59830764 2.16331216
-13.06726238 -2.37028958 1.73259145
-13.06509643 -1.70813771 2.12550222
-13.06535339 -1.95934005 2.00754882
-13.06275800 -2.14937708 1.89472225
-13.06264771 -1.84901279 2.06522702
-13.06392194 -2.36284457 1.73987718
-13.06398764 -1.78793401 2.09304321
-13.06269934 -1.68850543 2.13348431
-13.06150490 -1.58745370 2.16744957
-13.06612426 -1.50344430 2.18775622
-13.06636244 -1.60785319 2.15976668
-13.06192143 -1.87220653 2.05407902
-13.06559744 -2.13886267 1.90062566
-13.06800392 -1.80618867 2.08377002
-13.06502486 -1.75954246 2.10497147
-13.06282254 -1.52617942 2.18377133
-13.06156943 -1.79894107 2.08882028
-13.06832775 -2.57077649 1.54263069
-13.06494390 -2.48158307 1.63388886
-13.07073423 -2.35716952 1.74224039
-13.06564320 -2.02125041 1.97246568
-13.06800861 -2.42449446 1.68567787
-13.06187097 -1.66777741 2.14114037
-13.06155301 -2.48889431 1.62809794
-13.06556693 -1.91287336 2.03232860
-13.06520790 -2.52743699 1.58855354
-13.06378349 -1.82438920 2.07658358
-13.06391842 -2.47547124 1.64009557
-13.06364034 -1.77751743 2.09768779
-13.06422465 -1.62307334 2.15552571
-13.06140165 -2.25652376 1.82219700
-13.06539093 -1.81577953 2.08013464
-13.05969447 -2.42033959 1.69231080
-13.06528416 -2.11064799 1.91857980
-13.06932508 -2.27786894 1.80412436
-13.06477494 -2.25096046 1.82515201
-13.06589663 -2.08868506 1.93202091
-13.06255619 -1.54788379 2.17867971
-13.06511168 -2.52054080 1.59554257
-13.06680009 -2.24022239 1.83214426
-13.06643988 -1.65475254 2.14439853
-13.06012977 -1.83275277 2.07367375
-13.06140047 -2.07812547 1.93976115
-13.06605621 -2.51185794 1.60387358
-13.06623690 -1.64178794 2.14882899
-13.06661236 -2.09734929 1.92646319
-13.06330242 -2.46770651 1.64772626
-13.06364738 -1.51370703 2.18636202
-13.06303960 -2.44384441 1.66996243
-13.06700073 -2.55915622 1.55533862
-13.07147342 -2.19425935 1.86247414
-13.06392311 -1.72860026 2.11791993
-13.07078586 -1.99766888 1.98457962
-13.07066618 -2.24663854 1.82641509
-13.07353847 -2.00745657 1.97818576
-13.07153913 -2.23248596 1.83613516
-13.07061455 -2.03811160 1.96112569
-13.06909393 -2.18447532 1.86975811
-13.07053711 -2.04757296 1.95553497
-13.07130681 -2.32644452 1.76661685
-13.07008187 -2.05583636 1.95072671
-13.07290605 -2.07671236 1.93727929
-13.06987654 -2.15715032 1.88756265
-13.07118596 -2.10120482 1.92272294
-13.06599637 -2.55042408 1.56479602
-13.06967003 -2.35095957 1.74764969
-13.07008069 -2.37891509 1.72442852
-13.07708189 -2.51328499 1.59820630
-13.07174094 -2.50174510 1.61174949
-13.07665011 -2.42881726 1.67875279
-13.07244376 -2.48370677 1.62903131
-13.07094543 -2.47754743 1.63550511
-13.06991995 -2.45428681 1.65785142
-13.07181721 -2.44661007 1.66426933
-13.06841341 -1.61525727 2.15686139
-13.07518581 -2.49213678 1.61983513
-13.07170574 -1.97346227 1.99792467
-13.07050778 -2.41493088 1.69327160
-13.06919484 -1.90393061 2.03593421
-13.06878065 -2.12803454 1.90658377
-13.07463435 -2.52656932 1.58582939
-13.07018395 -2.53429299 1.57968324
-13.07095482 -2.34388842 1.75291570
-13.07240973 -2.33753680 1.75750367
-13.06747358 -2.33344484 1.76237045
-13.07331554 -2.31813654 1.77243930
-13.07029424 -2.28663466 1.79734477
-13.06936145 -2.02881671 1.96697132
-13.07079525 -2.26015240 1.81666935
-13.07041392 -2.25254709 1.82226858
-13.06955505 -2.57701532 1.53560675
-13.07277933 -2.20232387 1.85661370
-13.06791826 -2.21414550 1.84998063
-13.07268312 -2.56412025 1.54797501
-13.07411457 -1.82222502 2.07468149
-13.07189817 -1.74825586 2.10773038
-13.06983782 -1.85755573 2.05908352
-13.07246488 -1.88801071 2.04317712
-13.06975334 -1.69797969 2.12802324
-13.07601769 -1.89575506 2.03820987
-13.06805789 -1.67726429 2.13608072
-13.07888411 -1.65519825 2.14072076
-13.07288727 -2.54320230 1.56955735
-13.06833362 -1.57696569 2.16869021
-13.06941777 -1.83949966 2.06789192
-13.07298466 -2.20890663 1.85207251
-13.07077178 -2.29869141 1.78817528
-13.07136900 -1.49337898 2.18790186
-13.07217038 -2.40574657 1.70072805
-13.07078703 -1.96521090 2.00275625
-13.07359479 -2.43757947 1.67192407
-13.06973574 -1.94854360 2.01218681
-13.07235693 -2.38858339 1.71546186
-13.07073541 -1.76793859 2.09980256
-13.07248717 -1.91854298 2.02740814
-13.07803228 -1.50052581 2.18494113
-13.07329794 -1.51046662 2.18433247
-13.07329324 -1.52215010 2.18177449
-13.07236867 -1.53637762 2.17880276
-13.07307383 -1.54894388 2.17542683
-13.07229475 -1.55883057 2.17289525
-13.07653982 -2.16278431 1.88187351
-13.07464139 -1.56832390 2.16947634
-13.07040570 -2.01410915 1.97522240
-13.07242733 -2.46017453 1.65143644
-13.07484085 -1.58828867 2.16341893
-13.07241795 -2.17360848 1.87599753
-13.07572084 -1.60077807 2.15932448
-13.07595316 -1.61165445 2.15584720
-13.07568212 -1.95726122 2.00574763
-13.07311724 -1.62200298 2.15337340
-13.06660063 -1.63121868 2.15223367
-13.07508138 -1.63295768 2.14924332
-13.07379425 -2.14681484 1.89310160
-13.07574900 -1.64470951 2.14516075
-13.07742920 -1.67466524 2.13435976
-13.07520693 -1.68655801 2.13072188
-13.07631689 -1.70859193 2.12219243
-13.07112377 -1.71945614 2.11947722
-13.07546388 -1.73326274 2.11281027
-13.07634974 -1.75751042 2.10261222
-13.07383766 -1.79402149 2.08758199
-13.07343287 -1.93701998 2.01734326
-13.07607753 -1.77825295 2.09386145
-13.07898619 -1.80449117 2.08143776
-13.07455691 -2.36316767 1.73602987
-13.07495701 -1.81368589 2.07839108
-13.07339884 -1.83060457 2.07096881
-13.07685427 -1.84804700 2.06170222
-13.07750898 -2.13611607 1.89882534
-13.07301165 -1.86703879 2.05353372
-13.07089498 -1.87810290 2.04860401
-13.07515765 -2.26941942 1.80854469
-13.07601182 -2.06277346 1.94482095
-13.07288375 -1.66574992 2.13878097
-13.07967962 -2.47665131 1.63304891
-13.07544042 -1.91070447 2.03065149
-13.07607401 -2.02087245 1.96966218
-13.07244141 -2.11716798 1.91237455
-13.07812615 -2.22465933 1.83956111
-13.07211288 -1.98452330 1.99164139
-13.07612329 -2.35294659 1.74385869
-13.07621129 -2.56966975 1.54080603
-13.07448768 -2.46922830 1.64213114
-13.07671582 -2.10697477 1.91747805
-13.07543690 -2.30884913 1.77891529
-13.07854620 -2.57670351 1.53244950
-13.07899088 -2.55621823 1.55374437
-13.07544159 -2.55058542 1.56096777
-13.07766386 -2.27817518 1.80126982
-13.07517055 -2.52057424 1.59166093
-13.07433046 -2.09060109 1.92836455
-13.08002810 -2.41085462 1.69348192
-13.07968197 -2.33923767 1.75370490
-13.07638963 -2.24032549 1.82911944
-13.08200514 -1.74941642 2.10437645
-13.08304822 -1.56160767 2.16900144
-13.08236770 -2.18781034 1.86347029
-13.08352342 -1.63570824 2.14593280
-13.08327585 -1.87931348 2.04445076
-13.07644243 -2.39722284 1.70665155
-13.08093038 -1.51676236 2.18080386
-13.08026511 -2.50544663 1.60477366
-13.08089518 -1.90262118 2.03327899
-13.07745735 -1.92696669 2.02152761
-13.08213773 -1.98877321 1.98632493
-13.08121550 -2.03047388 1.96253720
-13.08060303 -2.04225239 1.95574147
-13.08504169 -2.07030544 1.93760444
-13.08514847 -2.08297715 1.92981888
-13.08602494 -2.10508616 1.91586429
-13.08376982 -2.11328649 1.91143413
-13.08298252 -2.12484223 1.90436356
-13.08010554 -2.44977979 1.65827147
-13.08111929 -2.00187274 1.97916182
-13.08193826 -1.68062175 2.13094686
-13.08144312 -2.17767432 1.87053646
-13.08443978 -1.67392869 2.13263571
-13.07597193 -2.21545698 1.84661467
-13.07967258 -2.24950452 1.82154669
-13.08178338 -2.28731944 1.79313769
-13.08237943 -2.30793599 1.77731239
-13.08216823 -2.31459927 1.77224394
-13.07812497 -2.33195414 1.76002015
-13.07781170 -2.34699537 1.74810098
-13.07981221 -2.35714825 1.73918243
-13.08551220 -1.88734294 2.03975836
-13.08171768 -2.23317470 1.83247558
-13.07927952 -2.15348311 1.88712925
-13.08519540 -2.54873040 1.55904176
-13.08167427 -2.37888092 1.72046651
-13.08085529 -2.54436858 1.56525038
-13.08295201 -1.55206550 2.17170491
-13.08161091 -2.29996754 1.78367838
-13.07991077 -1.96555233 1.99994600
-13.07917627 -2.05223485 1.95021308
-13.08229965 -1.94677775 2.00952499
-13.08240407 -2.43986641 1.66655056
-13.08242050 -2.40368666 1.69888828
-13.08097849 -1.69805024 2.12483577
-13.08284759 -1.50714026 2.18235836
-13.08315030 -2.16637217 1.87751918
-13.08376512 -2.38842676 1.71157304
-13.08388480 -2.35083931 1.74290831
-13.07985562 -2.01224034 1.97355437
-13.08346475 -2.19688127 1.85699415
-13.08457237 -1.56997197 2.16612534
-13.08193474 -1.83808419 2.06500688
-13.07902374 -2.37009803 1.72873915
-13.08443039 -1.74094886 2.10715971
-13.08438581 -2.49788957 1.61064891
-13.08017124 -1.57745496 2.16515280
-13.08443391 -2.14409391 1.89164301
-13.08315148 -2.45831423 1.64916592
-13.08651069 -1.95641335 2.00304753
-13.08117561 -2.53766746 1.57198539
-13.08236652 -1.97575904 1.99358441
-13.08256599 -2.52972672 1.57954714
-13.08215767 -1.91807571 2.02488022
-13.08780486 -2.13448882 1.89674329
-13.08275724 -1.76391528 2.09808203
-13.08543710 -2.36198057 1.73324250
-13.08103481 -2.41953586 1.68547342
-13.08362784 -2.26980105 1.80555537
-13.09089539 -2.47619753 1.62916874
-13.08420042 -1.66502143 2.13582685
-13.08636872 -1.90927669 2.02823122
-13.08617277 -2.21733239 1.84215019
-13.08602728 -1.59460993 2.15825265
-13.08579497 -2.56797753 1.53873878
-13.08244631 -1.72016776 2.11599906
-13.08808059 -1.84791529 2.05853411
-13.08355627 -1.86912686 2.04946450
-13.08634525 -1.78425389 2.08831649
-13.08826950 -2.46672678 1.63922600
-13.09146445 -1.80347375 2.07828724
-13.08606131 -2.27593179 1.80022366
-13.08564243 -2.43198097 1.67255532
-13.08486804 -2.52180036 1.58663003
-13.08704572 -1.70876763 2.11906641
-13.08677351 -1.79531815 2.08329468
-13.08687559 -1.54076892 2.17354438
-13.08729681 -2.34277772 1.74823488
-13.08837510 -2.57480479 1.53049768
-13.08565534 -1.68869052 2.12697342
-13.08616808 -2.51436738 1.59359647
-13.08412885 -1.82008400 2.07282060
-13.08569641 -1.58492872 2.16128847
-13.08314678 -1.62236935 2.15037572
-13.08380032 -1.82864264 2.06892533
-13.08189485 -1.85821880 2.05532640
-13.08632531 -2.01895393 1.96774468
-13.08543358 -1.64597259 2.14196492
-13.08774972 -2.40839314 1.69285272
-13.08496895 -1.93573505 2.01470519
-13.08497364 -2.25980231 1.81243132
-13.09151255 -1.99372770 1.98072145
-13.08652360 -2.24062777 1.82570831
-13.08816742 -2.22680929 1.83489716
-13.09063491 -2.03788838 1.95535002
-13.09494803 -2.20039463 1.85101740
-13.08709383 -2.05873108 1.94397000
-13.09039086 -2.16844748 1.87389435
-13.09112888 -2.15895327 1.87992199
-13.08395637 -2.09640022 1.92191070
-13.08756316 -1.75299651 2.10127962
-13.09011044 -2.55326176 1.55236381
-13.08736252 -2.31057552 1.77358680
-13.08660221 -2.50830161 1.59946292
-13.08964580 -2.49090832 1.61539573
-13.08359734 -2.48412888 1.62436444
-13.09348256 -2.40359573 1.69494989
-13.09063960 -2.44819346 1.65572962
-13.09025593 -2.42495660 1.67718187
-13.08938063 -2.44170823 1.66220928
-13.09624690 -2.22058629 1.83666550
-13.08797499 -2.41361118 1.68815944
-13.08802545 -2.39670673 1.70292641
-13.09258614 -2.37879556 1.71660130
-13.08815920 -2.35546556 1.73764963
-13.09040963 -2.33231758 1.75554364
-13.09205580 -2.31526557 1.76836788
-13.08416874 -2.32325896 1.76482783
-13.08901221 -2.30354690 1.77844508
-13.08310454 -2.56132481 1.54675637
-13.09554877 -2.56630849 1.53655597
-13.09665052 -1.81649218 2.07085412
-13.08953316 -1.68005210 2.12896498
-13.08901807 -1.92608303 2.01863699
-13.09231041 -1.62970905 2.14535347
-13.09276800 -2.24832328 1.81818088
-13.08703282 -1.52675083 2.17682880
-13.09130135 -1.51348557 2.17858394
-13.09936089 -2.44652354 1.65392168
-13.09427455 -2.30847440 1.77287680
-13.09265771 -1.63919446 2.14215016
-13.08642504 -1.81185199 2.07594149
-13.08703164 -1.49099684 2.18410940
-13.09167682 -1.89461987 2.03423627
-13.08743879 -1.49763857 2.18287066
-13.09312235 -1.94110284 2.00941191
-13.09741200 -2.00305105 1.97360439
-13.09014446 -2.23399001 1.82922680
-13.08997081 -2.54147341 1.56459787
-13.09271521 -1.55466161 2.16812277
-13.09447166 -1.56511325 2.16464343
-13.09456788 -1.58704363 2.15806918
-13.08770396 -1.60805162 2.15359061
-13.09562973 -1.61952713 2.14765010
-13.09410090 -1.64693823 2.13913678
-13.08977369 -1.65449675 2.13784070
-13.09233974 -1.67116860 2.13131279
-13.08323361 -2.20688339 1.85027455
-13.09546429 -1.68835920 2.12425293
-13.08935247 -2.04825099 1.94957568
-13.09105378 -1.90231978 2.03046830
-13.09744603 -1.70775917 2.11643334
-13.09289707 -2.02713153 1.96102523
-13.09352480 -1.71871665 2.11338021
-13.08908261 -1.72995764 2.11022985
-13.09700369 -2.54581528 1.55727342
-13.09200652 -1.74402663 2.10368815
-13.09559923 -1.75625335 2.09759305
-13.09602514 -2.48340435 1.62017407
-13.09742843 -1.77773346 2.08792387
-13.09956974 -2.57644509 1.52411423
-13.09494451 -1.82521170 2.06731245
-13.09133186 -1.69832611 2.12176754
-13.09266123 -1.54687062 2.17029326
-13.09305312 -2.29146244 1.78630588
-13.09750470 -1.84949810 2.05501093
-13.09194316 -1.85938875 2.05184384
-13.09366090 -2.43497132 1.66680546
-13.09399178 -1.87060216 2.04568069
-13.09388735 -1.87939605 2.04132151
-13.09471924 -1.49961722 2.18046506
-13.09220012 -2.10905081 1.91151758
-13.09342037 -2.27782362 1.79637737
-13.09060206 -1.57689705 2.16228638
-13.09229281 -2.36804927 1.72575525
-13.08751388 -2.15347211 1.88462686
-13.09098691 -1.96518699 1.99692338
-13.09464180 -2.34883807 1.74083124
-13.09494921 -2.38834697 1.70760209
-13.09379818 -1.94854609 2.00518062
-13.09410090 -2.45513248 1.64792704
-13.09609085 -2.49762323 1.60626598
-13.09358112 -1.83668736 2.06227847
-13.09733691 -2.57228772 1.52948188
-13.09193964 -2.26729835 1.80468007
-13.09608733 -2.52466678 1.57926672
-13.09609085 -1.73533277 2.10603802
-13.08883269 -2.00754208 1.97362595
-13.09284662 -2.53367993 1.57143173
-13.09660476 -2.51464018 1.58916250
-13.09302261 -2.50862017 1.59661469
-13.09091299 -2.50301170 1.60302190
-13.10376201 -1.62752991 2.14268681
-13.09486942 -2.41789395 1.68180826
-13.09593362 -1.66206907 2.13346085
-13.09575176 -2.35775852 1.73312121
-13.09587144 -1.90659712 2.02683556
-13.09736155 -1.95550476 2.00031443
-13.10058349 -1.88461644 2.03669321
-13.09566024 -1.93297540 2.01301473
-13.09591719 -2.10100829 1.91537531
-13.09508883 -1.91535771 2.02250601
-13.09448809 -1.48983936 2.18216726
-13.10093900 -2.25018842 1.81414319
-13.09830959 -1.54073196 2.17019632
-13.09857242 -1.79536171 2.07982825
-13.09704124 -1.78689944 2.08404223
-13.09617298 -2.06472543 1.93758743
-13.09794586 -2.33894097 1.74762373
-13.09786843 -2.46919076 1.63312488
-13.09647922 -2.41054222 1.68773382
-13.09692156 -2.01543368 1.96662416
-13.10434632 -1.94842641 2.00208423
-13.10016813 -1.98500876 1.98304096
-13.10023970 -2.03447959 1.95446784
-13.09732987 -2.05409060 1.94366728
-13.09850202 -2.42884821 1.67054792
-13.09390260 -2.11728165 1.90583754
-13.09574706 -2.12756198 1.89872635
-13.09566728 -2.13952354 1.89110842
-13.09732166 -2.14966131 1.88405765
-13.09721019 -2.15913176 1.87790989
-13.09875076 -2.16817234 1.87145649
-13.10102231 -2.46077512 1.63988394
-13.09381109 -2.17882726 1.86594174
-13.09692038 -2.18990662 1.85749105
-13.09494334 -2.21038047 1.84416052
-13.09725478 -2.22997857 1.82974893
-13.09219190 -1.76962582 2.09294318
-13.09605330 -2.23854923 1.82408473
-13.09689105 -2.25735212 1.81030453
-13.09949347 -2.30059365 1.77715810
-13.09724305 -1.59870305 2.15369841
-13.10540349 -2.32863775 1.75321284
-13.09862874 -2.32134821 1.76135773
-13.09376650 -2.55897377 1.54498451
-13.10010829 -1.72588681 2.10862431
-13.09969411 -1.74611719 2.10057636
-13.09926937 -2.50527767 1.59739539
-13.10091671 -1.92407313 2.01618842
-13.09703889 -2.07588003 1.93053739
-13.09920484 -1.80823567 2.07387674
-13.10139425 -1.93706061 2.00910904
-13.10130273 -2.38009618 1.71229053
-13.10016109 -1.65299006 2.13530824
-13.10471944 -2.15088054 1.88091330
-13.10461149 -2.53762551 1.56256671
-13.10545276 -2.29026462 1.78301428
-13.10197739 -1.63567377 2.14055107
-13.10240096 -2.24350827 1.81845705
-13.10300170 -2.02512647 1.95912591
-13.09867215 -2.04411269 1.94921987
-13.10351796 -2.16016194 1.87523707
-13.10182955 -1.60964059 2.14893180
-13.09890916 -1.67874649 2.12671837
-13.10173099 -1.69696037 2.11923435
-13.09382282 -1.97760086 1.98914413
-13.10250187 -1.66980066 2.12884310
-13.10228011 -2.10928151 1.90825854
-13.10090732 -1.99441864 1.97748954
-13.10528146 -1.50145274 2.17700216
-13.10342292 -2.27967732 1.79167133
-13.10144588 -1.89960194 2.02880512
-13.10229653 -1.57531659 2.15930791
-13.10419849 -2.55758955 1.54210284
-13.10359775 -2.17386778 1.86613739
-13.10053655 -2.39655243 1.69844682
-13.10358484 -2.34441157 1.74118587
-13.10570034 -2.12948051 1.89440149
-13.10093431 -1.54698018 2.16779761
-13.10019629 -1.53272273 2.17158553
-13.10406355 -2.20469808 1.84514259
-13.10333610 -2.26639094 1.80155963
-13.10503389 -2.52961291 1.57059676
-13.10544220 -2.00938551 1.96751720
-13.10367636 -2.49124594 1.60950405
-13.10560412 -1.75844819 2.09372755
-13.10673638 -1.66077035 2.13071044
-13.10499634 -2.36071734 1.72727294
-13.10229419 -2.47516853 1.62565157
-13.10522631 -1.90666400 2.02402428
-13.10541053 -1.97485793 1.98714772
-13.10242443 -1.94249044 2.00587493
-13.10636443 -1.93074258 2.01097990
-13.10427358 -2.21377943 1.83880461
-13.11181685 -2.09936432 1.91146567
-13.10804111 -1.91473013 2.01894073
-13.10520637 -2.56542410 1.53338170
-13.10637265 -1.85297963 2.05068754
-13.10157846 -1.86158769 2.04790926
-13.10854564 -1.89100458 2.03106494
-13.10396148 -1.84129088 2.05702493
-13.10693467 -1.95414019 1.99815317
-13.10360009 -1.96375437 1.99390693
-13.10640081 -2.25491675 1.80893042
-13.10836964 -1.98181220 1.98232655
-13.10835790 -1.98908708 1.97822551
-13.10513831 -2.23506462 1.82358167
-13.10494706 -2.00134607 1.97229159
-13.10698043 -2.22424823 1.83061029
-13.10650523 -2.01777166 1.96232174
-13.11068108 -2.20796915 1.84075951
-13.10724794 -2.24793814 1.81368515
-13.10345577 -1.73727828 2.10311894
-13.10784868 -2.04063820 1.94845237
-13.10653574 -2.19588615 1.85034538
-13.10607814 -2.04960574 1.94367241
-13.10563111 -2.05911623 1.93811249
-13.10484616 -2.11920589 1.90120572
-13.10562290 -2.14000959 1.88767265
-13.10617905 -1.56054039 2.16246737
-13.10055063 -2.08854265 1.92169452
-13.10186710 -2.55080453 1.55011529
-13.10676571 -2.52365655 1.57590281
-13.10607345 -2.51786241 1.58204910
-13.10432520 -2.31001130 1.76823544
-13.10819364 -2.33765090 1.74497819
-13.10795194 -2.48182712 1.61692735
-13.10804932 -2.16571805 1.87012140
-13.10499869 -2.35175934 1.73465033
-13.10733829 -1.53908242 2.16795102
-13.10573553 -2.45059804 1.64761054
-13.10683846 -2.38723554 1.70413023
-13.10470067 -2.43341052 1.66395400
-13.10726906 -2.40446838 1.68899324
-13.10663664 -2.41372221 1.68103475
-13.10696635 -2.06904676 1.93164970
-13.10510429 -2.42231340 1.67391256
-13.09828730 -2.44007248 1.66032111
-13.10297471 -2.37074497 1.71960691
-13.10738288 -2.50956205 1.58982337
-13.10797775 -2.46658540 1.63157478
-13.11247391 -2.28172535 1.78704361
-13.10674107 -2.50070730 1.59888022
-13.10622012 -2.18061892 1.86077414
-13.10386057 -1.51976532 2.17347839
-13.10584700 -2.57241239 1.52577228
-13.10871342 -2.42810154 1.66723945
-13.10950424 -1.77790433 2.08423715
-13.10171926 -1.80118446 2.07630375
-13.10590567 -1.76806340 2.08953703
-13.10824409 -1.70495962 2.11430684
-13.10395913 -1.71562349 2.11150041
-13.10785220 -1.67781032 2.12439798
-13.10505501 -1.68663956 2.12205119
-13.10208182 -1.64416201 2.13770739
-13.11027980 -1.61804933 2.14377213
-13.10867235 -1.60006176 2.14988439
-13.10499634 -1.58906804 2.15435577
-13.10119831 -1.55506714 2.16548148
-13.10768442 -1.78827823 2.08027089
-13.10673638 -1.48794944 2.17898683
-13.10526269 -1.73000589 2.10545356
-13.11664154 -1.55277066 2.16143778
-13.10714469 -1.79543754 2.07724783
-13.11242698 -2.05471848 1.93862816
-13.11255956 -1.64203126 2.13529988
-13.10868878 -1.54854246 2.16503474
-13.11419517 -1.56645920 2.15833332
-13.11295028 -1.57934606 2.15490737
-13.11524881 -1.59013928 2.15095182
-13.11229205 -1.68422530 2.12076113
-13.11835811 -2.44503709 1.64772934
-13.10936931 -2.44018717 1.65585296
-13.11518780 -2.33089111 1.74790019
-13.11372936 -1.66994630 2.12543314
-13.10981869 -1.72172534 2.10736108
-13.11416818 -1.72883360 2.10326326
-13.11232490 -1.73916908 2.09967613
-13.10908654 -1.74859788 2.09678492
-13.11509276 -1.79270180 2.07607759
-13.10946904 -1.80135708 2.07392294
-13.10527911 -1.83010855 2.06193205
-13.11043233 -1.93664863 2.00658318
-13.11294324 -1.83564075 2.05702185
-13.11186144 -1.84591302 2.05245573
-13.11141323 -2.37605644 1.71195364
-13.11561606 -1.85605329 2.04641211
-13.11208789 -1.86409904 2.04352735
-13.10614620 -1.87371923 2.04051353
-13.11056727 -1.81936388 2.06536591
-13.11886029 -2.03851156 1.94626794
-13.11138272 -2.31729571 1.76007309
-13.11490151 -2.23317558 1.82166182
-13.11039948 -2.54356427 1.55403345
-13.11381384 -2.02323273 1.95688517
-13.11186378 -2.15477273 1.87610239
-13.11500476 -2.43145195 1.66166148
-13.11050039 -1.65120662 2.13283767
-13.11079372 -2.03176086 1.95280979
-13.11076321 -1.99706506 1.97296815
-13.11253258 -1.60826209 2.14616438
-13.11404968 -2.55733934 1.53816870
-13.11312745 -2.54968313 1.54652405
-13.11364371 -1.69338996 2.11699653
-13.10997826 -1.80976055 2.06997046
-13.11316265 -2.51981716 1.57710531
-13.11361320 -1.63404212 2.13761777
-13.11461170 -1.96668825 1.98887001
-13.11550342 -2.51333281 1.58264133
-13.11417405 -1.71184833 2.10987727
-13.11513735 -2.49609058 1.59997816
-13.11979073 -1.49357052 2.17417842
-13.11416114 -2.36449074 1.72072596
-13.11573105 -2.28956562 1.77999856
-13.11470791 -2.12111840 1.89685182
-13.11464103 -2.13117669 1.89045341
-13.11333513 -2.17212877 1.86415448
-13.11419282 -2.39481489 1.69479002
-13.11188256 -2.18721209 1.85451434
-13.11224277 -2.34542136 1.73720802
-13.11474076 -2.52481961 1.57137790
-13.11517137 -2.25952350 1.80259655
-13.11984823 -1.99212964 1.97292548
-13.11377630 -1.50700532 2.17334331
-13.11389480 -1.49504128 2.17566927
-13.11239060 -1.48707487 2.17748469
-13.11518897 -1.67860085 2.12191362
-13.11470791 -1.76009832 2.09028708
-13.11659109 -1.62680699 2.13906990
-13.11786179 -1.65924855 2.12787438
-13.12169855 -2.38287901 1.70219162
-13.11626843 -2.41592306 1.67529810
-13.11388541 -1.89805213 2.02585701
-13.11306761 -2.47308324 1.62326489
-13.11605606 -1.90587274 2.02111900
-13.11475719 -2.35416508 1.72909276
-13.11433597 -1.52986423 2.16806615
-13.11362376 -2.20091925 1.84461254
-13.11773038 -1.93054472 2.00760250
-13.11497191 -2.25018739 1.80946106
-13.11499420 -2.48767230 1.60831738
-13.11524529 -2.56494509 1.52969982
-13.11814456 -1.84044814 2.05315914
-13.11350995 -2.21451759 1.83526383
-13.11407080 -1.92257143 2.01299449
-13.11318729 -1.94273009 2.00246497
-13.11511505 -1.94937416 1.99825789
-13.11538140 -1.95736447 1.99378622
-13.11568529 -1.97508570 1.98383266
-13.11373054 -2.00544785 1.96724177
-13.11488508 -2.01453550 1.96160646
-13.11505991 -2.04739432 1.94218626
-13.11478652 -2.06296252 1.93290647
-13.11678351 -2.07104757 1.92734655
-13.11113515 -2.07817519 1.92478343
-13.11379390 -2.11116762 1.90347066
-13.11653477 -2.53091559 1.56442671
-13.11378920 -2.14252416 1.88342318
-13.12047360 -2.16032664 1.86964210
-13.11849421 -2.19289463 1.84848758
-13.11905975 -2.20633325 1.83907374
-13.11794393 -2.22279771 1.82798631
-13.11157280 -2.24205966 1.81645272
-13.11705220 -1.54059615 2.16460149
-13.11520423 -2.27083621 1.79422829
-13.11908439 -2.28330434 1.78355958
-13.11898818 -1.91321758 2.01637952
-13.11149184 -2.29897286 1.77428904
-13.11768697 -2.33852855 1.74080689
-13.11591643 -2.40864100 1.68195141
-13.11810350 -1.51891936 2.16938409
-13.11481586 -2.45627265 1.63861499
-13.11854701 -2.46455937 1.62918766
-13.11728687 -2.32232676 1.75396098
-13.11791577 -2.47917659 1.61537285
-13.11572166 -1.88197662 2.03347098
-13.12311827 -2.54973329 1.54216077
-13.11639397 -2.42402469 1.66792599
-13.12367911 -2.13374259 1.88590093
-13.11749337 -2.30734273 1.76568259
-13.11854936 -1.78384191 2.07890133
-13.11899287 -1.71810066 2.10600164
-13.12298334 -1.86518920 2.03964557
-13.11997494 -1.70225087 2.11176426
-13.11963468 -1.80048325 2.07120846
-13.11814222 -1.48602490 2.17598841
-13.12095349 -1.58181033 2.15171697
-13.12334472 -2.36939155 1.71310540
-13.11889784 -1.59961677 2.14692352
-13.11827598 -1.76713780 2.08618750
-13.11857283 -2.17857778 1.85815779
-13.12070475 -1.68482414 2.11799752
-13.11628485 -2.50480365 1.59084900
-13.12076224 -2.31420768 1.75912872
-13.12039617 -1.84821742 2.04873440
-13.11827011 -1.82617470 2.05984794
-13.11852355 -1.75239900 2.09232704
-13.12240724 -2.48385843 1.60893029
-13.12124330 -2.27725045 1.78736393
-13.12208809 -2.00074327 1.96730322
-13.12413436 -1.70946649 2.10777541
-13.12310536 -1.96829189 1.98530107
-13.12232158 -1.88927863 2.02774400
-13.12304317 -1.57219438 2.15392706
-13.12436903 -2.11419494 1.89815802
-13.12754872 -1.81853639 2.06054284
-13.12619941 -1.83976468 2.05100961
-13.12206580 -1.64927797 2.12999589
-13.12033633 -1.87337648 2.03637744
-13.12466118 -1.90563969 2.01857861
-13.12496977 -2.16964808 1.86200364
-13.12523728 -2.28765545 1.77809089
-13.12534875 -1.92487172 2.00825575
-13.12171146 -1.93713834 2.00283765
-13.12454385 -1.94423003 1.99809098
-13.12482427 -2.25394627 1.80335935
-13.12774349 -1.97270621 1.98135754
-13.12447462 -2.23157135 1.81956686
-13.11993505 -1.98260698 1.97828021
-13.12601050 -2.22145880 1.82620873
-13.12395250 -2.00987390 1.96144938
-13.12437959 -2.01881196 1.95611811
-13.12310184 -2.21343755 1.83281687
-13.12446759 -2.19858142 1.84260969
-13.12624047 -2.04714132 1.93877879
-13.12468582 -2.18444541 1.85216315
-13.12087371 -2.05614113 1.93510909
-13.12022486 -2.08603116 1.91706372
-13.12428103 -2.12335211 1.89236065
-13.12427985 -2.06604145 1.92804057
-13.12387975 -2.07533077 1.92248152
-13.12662063 -2.09536447 1.90923108
-13.12395602 -2.10504627 1.90403738
-13.12250345 -2.14619870 1.87823754
-13.12461660 -1.50856364 2.16969135
-13.12535696 -2.52458172 1.56710042
-13.12334354 -2.55742499 1.53403304
-13.12252222 -2.54261593 1.54981874
-13.12293288 -2.51748342 1.57530324
-13.12094763 -2.40110712 1.68665525
-13.12224532 -2.34688904 1.73233479
-13.12474097 -2.50805169 1.58400766
-13.12534171 -1.75851918 2.08767630
-13.12530182 -2.41683752 1.67086222
-13.12340338 -2.49063992 1.60186016
-13.12442652 -2.02834548 1.95051287
-13.12329661 -1.67635629 2.12024032
-13.12634607 -2.47594204 1.61497010
-13.12542619 -1.66704966 2.12285228
-13.12693038 -2.30743718 1.76219636
-13.12661476 -2.46315344 1.62714139
-13.12787960 -2.31674205 1.75451200
-13.12711225 -1.62595223 2.13614452
-13.12423175 -2.32604032 1.74845708
-13.12976512 -1.65728676 2.12489253
-13.12753582 -2.44836624 1.64080925
-13.12742787 -2.33905155 1.73678959
-13.12478203 -2.42617157 1.66256978
-13.12801336 -2.39205759 1.69176051
-13.12458609 -2.40799128 1.67910010
-13.12441361 -2.35726177 1.72291259
-13.12224884 -2.43534884 1.65514472
-13.12257619 -2.33285950 1.74361142
-13.12401234 -2.29740061 1.77107297
-13.12566906 -2.28152911 1.78255742
-13.12637306 -2.45687046 1.63324603
-13.12737390 -2.26977949 1.79079515
-13.12525371 -2.26227904 1.79709471
-13.12231220 -2.47045794 1.62195708
-13.12286131 -2.24342379 1.81163023
-13.11823022 -2.56671563 1.52649783
-13.12469521 -2.49901156 1.59304736
-13.12561392 -1.95220113 1.99340240
-13.12777048 -1.54444127 2.16026592
-13.11982593 -2.53671531 1.55708408
-13.12482193 -1.52543847 2.16588393
-13.12536400 -1.79098391 2.07368504
-13.12488998 -1.96075786 1.98891416
-13.12366621 -1.77481527 2.08125340
-13.12474332 -1.80953380 2.06556171
-13.12288947 -1.83256886 2.05542130
-13.12326611 -1.73259849 2.09898299
-13.12571952 -1.85681008 2.04291855
-13.12435025 -1.72348312 2.10225406
-13.12668868 -1.71558609 2.10460862
-13.12492987 -1.89764865 2.02263493
-13.12371666 -1.91854856 2.01210981
-13.12948822 -1.93125194 2.00354443
-13.12605274 -1.63233289 2.13439026
-13.12356882 -1.61892830 2.13946428
-13.12131370 -1.60929300 2.14318415
-13.12810253 -1.59858704 2.14442200
-13.12457084 -1.58928408 2.14837565
-13.12636132 -1.53340194 2.16356119
-13.12535109 -1.49539107 2.17218040
-13.12972640 -1.51780368 2.16604995
-13.12827501 -1.55880959 2.15619318
-13.12495217 -1.64013048 2.13217768
-13.12856834 -1.91135875 2.01435686
-13.12422001 -1.74227809 2.09475948
-13.13617614 -1.77268731 2.07825513
-13.13260573 -2.55028006 1.53737744
-13.13062399 -1.72680405 2.09901834
-13.13140190 -1.83227919 2.05291596
-13.13404187 -1.73304377 2.09545731
-13.13182899 -1.74969053 2.08934886
-13.13095722 -2.46661620 1.62202836
-13.13148521 -1.87224833 2.03346584
-13.13023093 -1.78207959 2.07606307
-13.13028725 -1.84822681 2.04566778
-13.13404305 -2.40786676 1.67542922
-13.12847095 -1.88059548 2.03021164
-13.13327804 -1.58791320 2.14608767
-13.13073781 -2.17602288 1.85582904
-13.13118601 -2.55712902 1.53081829
-13.12957622 -2.20526142 1.83628271
-13.13317362 -2.54228095 1.54543052
-13.12862114 -2.53008077 1.56005698
-13.13273128 -1.71892081 2.10144476
-13.13408294 -2.51749017 1.57046168
-13.13359132 -2.50964213 1.57858296
-13.13449712 -2.37159695 1.70686876
-13.13363591 -2.50080498 1.58738741
-13.13394449 -2.49058742 1.59736635
-13.13009131 -2.48233575 1.60715315
-13.12772120 -1.48432769 2.17344319
-13.13119775 -2.33101241 1.74190292
-13.13168350 -2.53561356 1.55299770
-13.13080234 -1.82560726 2.05623807
-13.13179966 -1.70219103 2.10815542
-13.13299058 -1.86384810 2.03718043
-13.13106516 -1.79919642 2.06824363
-13.13716642 -1.59703004 2.14209516
-13.13308914 -2.42909299 1.65645752
-13.13059701 -2.43881395 1.64849273
-13.12936620 -1.57927258 2.14988014
-13.13038464 -1.76586240 2.08300296
-13.13240861 -2.14943706 1.87288867
-13.13246493 -1.68253646 2.11519813
-13.13135028 -2.27649777 1.78436580
-13.13324284 -2.22663050 1.82004660
-13.13278173 -1.60876251 2.13983799
-13.13172926 -1.99589468 1.96699522
-13.12896727 -1.69275079 2.11254085
-13.13622777 -1.50748829 2.16641280
-13.13396209 -1.49518530 2.16963078
-13.13208712 -1.48357589 2.17226576
-13.13484208 -1.88816676 2.02436044
-13.13251773 -2.16059196 1.86550130
-13.13338599 -1.71028928 2.10458207
-13.13466021 -1.56947932 2.15110024
-13.13366993 -2.23940840 1.81077899
-13.13068031 -2.19049387 1.84605837
-13.13334962 -2.10094522 1.90355558
-13.13349276 -2.26354476 1.79322920
-13.13494885 -2.11638142 1.89330810
-13.13630169 -2.52363221 1.56324430
-13.13433755 -2.28368333 1.77782938
-13.13374620 -2.34853036 1.72663231
-13.13621956 -2.16807393 1.85929459
-13.13416507 -2.25748001 1.79747090
-13.13440208 -1.90082336 2.01800369
-13.13724152 -1.91057908 2.01201125
-13.13179379 -1.91853492 2.00957617
-13.13566927 -1.92444566 2.00520981
-13.13349745 -1.93824141 1.99850693
-13.13509082 -1.95528153 1.98868169
-13.13295773 -1.96390191 1.98460910
-13.13543812 -1.97697710 1.97649398
-13.13553316 -2.47188528 1.61497802
-13.13539119 -2.41791991 1.66579406
-13.13244851 -2.00507913 1.96149485
-13.13170814 -2.01316624 1.95704709
-13.13181491 -2.03690998 1.94307549
-13.14040361 -2.04630753 1.93467804
-13.13169171 -2.05768727 1.93070034
-13.13387761 -2.06832825 1.92353326
-13.13334610 -2.07766671 1.91799886
-13.13399259 -2.08603306 1.91261860
-13.13843244 -2.09339594 1.90660548
-13.13461797 -2.10801785 1.89869995
-13.13466373 -1.61965517 2.13582377
-13.13338951 -2.13677093 1.88075123
-13.13441499 -1.67318480 2.11792360
-13.13408059 -2.01978787 1.95239971
-13.13414043 -2.12570124 1.88762366
-13.13695171 -1.75691569 2.08472892
-13.13254003 -2.21454795 1.82882978
-13.13490778 -1.64746622 2.12664107
-13.13425894 -2.24989670 1.80298243
-13.13659384 -1.62796271 2.13256942
-13.13557306 -2.29256008 1.77062373
-13.13357489 -2.30103482 1.76477737
-13.13800535 -2.02715705 1.94681515
-13.13468016 -2.30880176 1.75828099
-13.13676398 -2.31498442 1.75261973
-13.13588985 -2.19709966 1.83975295
-13.13436571 -2.32241828 1.74760188
-13.13778359 -2.33819386 1.73357880
-13.13242621 -2.39937926 1.68360990
-13.13425542 -2.36046097 1.71645302
-13.13659384 -1.80531058 2.06375568
-13.13441030 -2.56121657 1.52502033
-13.13528090 -1.94655702 1.99341281
-13.13581359 -1.83934419 2.04818206
-13.13548271 -1.66457176 2.12060185
-13.14333809 -2.39923963 1.67931115
